ply
        format ascii 1.0
        element vertex 74496
        property float x
        property float y
        property float z
        property uchar red
        property uchar green
        property uchar blue
        end_header
10.187500 3.062500 -16.000000 205 212 218
10.250000 3.062500 -16.000000 205 212 218
10.312500 3.062500 -16.000000 205 212 218
10.375000 3.062500 -16.000000 205 212 218
10.437500 3.062500 -16.000000 205 212 218
10.625000 3.062500 -16.000000 205 212 218
10.687500 3.062500 -16.000000 205 212 218
9.373737 2.639731 -13.791245 204 211 217
9.364549 2.622074 -13.698997 204 211 217
9.324503 2.596026 -13.562914 203 210 216
9.408638 2.604651 -13.607973 203 210 216
9.923345 2.731707 -14.271777 203 210 216
10.156029 2.780142 -14.524822 203 210 216
10.105263 2.750877 -14.371930 203 210 216
10.125875 2.741259 -14.321678 203 210 216
10.146341 2.731707 -14.271777 202 209 215
10.202090 2.731707 -14.271777 202 209 215
10.329824 2.750877 -14.371930 202 209 215
10.422535 2.760563 -14.422535 202 209 215
10.442105 2.750877 -14.371930 202 209 215
10.461538 2.741259 -14.321678 202 209 215
10.517483 2.741259 -14.321678 202 209 215
10.877698 2.820144 -14.733813 202 209 215
11.094891 2.861314 -14.948905 201 208 214
11.402985 2.925373 -15.283582 201 208 214
12.000000 3.062500 -16.000000 202 208 214
12.062500 3.062500 -16.000000 203 208 214
12.125000 3.062500 -16.000000 202 207 213
12.187500 3.062500 -16.000000 202 207 213
11.487180 2.871795 -15.003663 202 207 213
11.177305 2.780142 -14.524822 202 207 213
11.154929 2.760563 -14.422535 202 207 213
11.171929 2.750877 -14.371930 202 207 213
11.228070 2.750877 -14.371930 201 206 212
11.284210 2.750877 -14.371930 201 206 212
11.710145 2.840580 -14.840580 201 206 212
12.687500 3.062500 -16.000000 201 206 212
12.750000 3.062500 -16.000000 201 206 212
12.812500 3.062500 -16.000000 200 205 211
12.875000 3.062500 -16.000000 200 205 211
12.937500 3.062500 -16.000000 199 204 210
13.000000 3.062500 -16.000000 199 204 210
13.062500 3.062500 -16.000000 199 204 210
13.125000 3.062500 -16.000000 199 204 210
13.187500 3.062500 -16.000000 199 204 210
13.250000 3.062500 -16.000000 199 204 210
13.312500 3.062500 -16.000000 198 203 209
13.375000 3.062500 -16.000000 198 203 209
13.437500 3.062500 -16.000000 197 202 208
13.500000 3.062500 -16.000000 197 202 207
13.562500 3.062500 -16.000000 197 202 206
13.625000 3.062500 -16.000000 197 202 206
13.123595 2.936330 -15.340824 196 201 205
13.134328 2.925373 -15.283582 196 201 205
13.812500 3.062500 -16.000000 196 201 205
13.875000 3.062500 -16.000000 195 200 204
13.937500 3.062500 -16.000000 195 200 204
14.000000 3.062500 -16.000000 195 200 204
14.062500 3.062500 -16.000000 195 200 204
14.125000 3.062500 -16.000000 194 199 203
14.187500 3.062500 -16.000000 194 199 203
14.250000 3.062500 -16.000000 194 199 203
14.312500 3.062500 -16.000000 193 198 202
14.375000 3.062500 -16.000000 193 198 202
14.437500 3.062500 -16.000000 192 197 201
14.500000 3.062500 -16.000000 192 197 201
14.562500 3.062500 -16.000000 192 197 201
14.625000 3.062500 -16.000000 191 196 200
14.687500 3.062500 -16.000000 191 196 200
14.750000 3.062500 -16.000000 191 196 200
14.812500 3.062500 -16.000000 190 195 199
14.875000 3.062500 -16.000000 190 195 199
14.937500 3.062500 -16.000000 189 194 198
15.000000 3.062500 -16.000000 189 194 198
15.062500 3.062500 -16.000000 189 194 198
15.125000 3.062500 -16.000000 188 193 197
15.187500 3.062500 -16.000000 188 193 197
15.250000 3.062500 -16.000000 187 192 196
15.312500 3.062500 -16.000000 187 192 196
15.375000 3.062500 -16.000000 186 191 195
15.437500 3.062500 -16.000000 186 191 195
15.500000 3.062500 -16.000000 186 191 195
15.562500 3.062500 -16.000000 185 190 194
15.625000 3.062500 -16.000000 185 190 194
15.687500 3.062500 -16.000000 184 189 193
15.750000 3.062500 -16.000000 184 189 193
15.812500 3.062500 -16.000000 184 189 193
15.875000 3.062500 -16.000000 183 188 192
15.937500 3.062500 -16.000000 183 188 192
-5.688889 1.896296 -10.113581 56 69 73
-5.649383 1.896296 -10.113581 59 73 76
-5.637717 1.905707 -10.163772 60 74 77
-5.640000 1.920000 -10.240000 61 75 78
-5.600000 1.920000 -10.240000 67 81 84
-5.560000 1.920000 -10.240000 74 88 91
-5.533834 1.924812 -10.265664 51 65 68
-5.549367 1.944304 -10.369620 41 55 59
-5.651948 1.994805 -10.638961 49 63 68
-5.699208 2.026385 -10.807388 58 72 77
-5.732620 2.053476 -10.951872 64 79 84
-5.782609 2.086957 -11.130435 60 75 80
-5.770492 2.098361 -11.191257 64 79 84
-5.742466 2.104110 -11.221918 71 87 92
-5.714286 2.109890 -11.252748 67 84 88
-5.701657 2.121547 -11.314918 61 78 82
-5.736695 2.151261 -11.473390 64 80 83
-5.772727 2.181818 -11.636364 64 79 82
-5.760000 2.194286 -11.702857 67 82 85
-5.698006 2.188034 -11.669516 69 84 87
-5.636364 2.181818 -11.636364 75 90 93
-5.590909 2.181818 -11.636364 80 95 98
-5.545455 2.181818 -11.636364 90 105 108
-5.531428 2.194286 -11.702857 91 106 109
-5.517241 2.206897 -11.770115 86 100 103
-5.534883 2.232558 -11.906977 80 94 97
-5.520468 2.245614 -11.976608 76 90 93
-5.473684 2.245614 -11.976608 82 96 99
-5.442815 2.252199 -12.011730 81 95 98
-5.395895 2.252199 -12.011730 72 86 89
-5.348974 2.252199 -12.011730 65 79 82
-5.349113 2.272189 -12.118343 69 83 86
-5.301775 2.272189 -12.118343 77 91 94
-5.270030 2.278932 -12.154303 73 87 90
-5.207100 2.272189 -12.118343 75 89 92
-5.159763 2.272189 -12.118343 74 88 91
-5.112426 2.272189 -12.118343 70 84 87
-5.080119 2.278932 -12.154303 68 82 85
-5.017752 2.272189 -12.118343 67 81 84
-4.985163 2.278932 -12.154303 65 79 82
-4.937685 2.278932 -12.154303 63 77 80
-4.904762 2.285714 -12.190476 58 72 75
-4.886228 2.299401 -12.263474 62 76 79
-4.852853 2.306306 -12.300301 69 84 88
-4.848485 2.327273 -12.412121 106 122 127
-5.159609 2.501629 -13.342019 174 191 197
-5.351536 2.621161 -13.979522 188 205 212
-5.388889 2.666667 -14.222222 187 204 211
-5.427562 2.713781 -14.473498 186 203 211
-5.650558 2.855019 -15.226766 186 203 211
-5.875000 3.000000 -16.000000 185 202 210
-5.812500 3.000000 -16.000000 184 201 209
-5.750000 3.000000 -16.000000 184 201 209
-5.687500 3.000000 -16.000000 184 201 209
-5.625000 3.000000 -16.000000 182 199 207
-5.562500 3.000000 -16.000000 180 198 206
-5.500000 3.000000 -16.000000 179 196 204
-5.437500 3.000000 -16.000000 178 195 203
-5.375000 3.000000 -16.000000 177 194 202
-5.312500 3.000000 -16.000000 176 193 201
-5.250000 3.000000 -16.000000 175 192 200
-5.187500 3.000000 -16.000000 174 191 199
-5.125000 3.000000 -16.000000 173 190 198
-5.062500 3.000000 -16.000000 172 189 197
-5.000000 3.000000 -16.000000 171 188 196
-4.937500 3.000000 -16.000000 170 187 195
-4.875000 3.000000 -16.000000 168 185 193
-4.812500 3.000000 -16.000000 167 184 192
-4.750000 3.000000 -16.000000 166 183 191
-4.687500 3.000000 -16.000000 166 183 191
-4.625000 3.000000 -16.000000 166 183 191
-4.562500 3.000000 -16.000000 166 183 191
-4.500000 3.000000 -16.000000 166 183 191
-4.437500 3.000000 -16.000000 167 184 192
-4.375000 3.000000 -16.000000 167 184 192
-4.312500 3.000000 -16.000000 168 185 193
-4.250000 3.000000 -16.000000 168 185 193
-4.187500 3.000000 -16.000000 168 185 193
-4.125000 3.000000 -16.000000 168 185 193
-4.062500 3.000000 -16.000000 169 186 194
-4.000000 3.000000 -16.000000 169 186 194
-3.937500 3.000000 -16.000000 169 186 194
-3.743396 2.898113 -15.456604 169 186 194
-3.683019 2.898113 -15.456604 169 186 194
-3.555556 2.844445 -15.170370 170 187 195
-3.687500 3.000000 -16.000000 171 188 196
-3.625000 3.000000 -16.000000 172 189 197
-3.562500 3.000000 -16.000000 172 189 197
-3.500000 3.000000 -16.000000 172 189 197
-3.437500 3.000000 -16.000000 172 189 197
-3.375000 3.000000 -16.000000 172 189 197
-3.312500 3.000000 -16.000000 172 189 197
-3.250000 3.000000 -16.000000 172 189 197
-3.187500 3.000000 -16.000000 172 189 197
-3.125000 3.000000 -16.000000 173 190 198
-3.062500 3.000000 -16.000000 173 190 198
-3.000000 3.000000 -16.000000 174 191 199
-2.937500 3.000000 -16.000000 175 192 200
-2.875000 3.000000 -16.000000 177 194 202
-2.812500 3.000000 -16.000000 178 195 203
-2.750000 3.000000 -16.000000 179 196 204
-2.687500 3.000000 -16.000000 179 196 204
-2.625000 3.000000 -16.000000 179 196 204
-2.562500 3.000000 -16.000000 180 197 205
-2.500000 3.000000 -16.000000 182 197 206
-2.437500 3.000000 -16.000000 182 197 205
-2.375000 3.000000 -16.000000 182 196 205
-2.312500 3.000000 -16.000000 182 196 205
-2.250000 3.000000 -16.000000 183 197 206
-2.187500 3.000000 -16.000000 183 197 206
-2.125000 3.000000 -16.000000 184 198 207
-2.062500 3.000000 -16.000000 186 200 209
-2.000000 3.000000 -16.000000 188 201 210
-1.937500 3.000000 -16.000000 190 203 211
-1.875000 3.000000 -16.000000 192 205 213
-1.812500 3.000000 -16.000000 194 207 215
-1.750000 3.000000 -16.000000 197 210 218
-1.687500 3.000000 -16.000000 199 212 220
-1.625000 3.000000 -16.000000 202 215 223
-1.562500 3.000000 -16.000000 204 217 225
-1.500000 3.000000 -16.000000 206 219 227
-1.437500 3.000000 -16.000000 207 220 228
-1.375000 3.000000 -16.000000 207 220 228
-1.312500 3.000000 -16.000000 207 220 228
-1.250000 3.000000 -16.000000 208 221 229
-1.187500 3.000000 -16.000000 208 221 229
-1.125000 3.000000 -16.000000 209 222 230
-1.062500 3.000000 -16.000000 209 222 230
-0.772414 2.648276 -14.124138 210 223 229
1.625000 3.000000 -16.000000 175 175 177
1.617977 2.876405 -15.340824 172 172 174
1.677903 2.876405 -15.340824 172 172 174
1.724907 2.855019 -15.226766 172 172 174
1.771218 2.833948 -15.114391 172 172 174
1.857678 2.876405 -15.340824 172 172 174
1.924812 2.887218 -15.398497 171 171 173
1.984962 2.887218 -15.398497 171 171 173
2.022305 2.855019 -15.226766 171 171 173
2.007169 2.752688 -14.681004 171 171 173
1.920000 2.560000 -13.653334 171 171 173
1.973333 2.560000 -13.653334 171 171 173
2.156028 2.723404 -14.524822 171 171 173
2.159169 2.657439 -14.173011 171 171 173
2.206897 2.648276 -14.124138 171 171 173
2.254296 2.639175 -14.075602 173 173 175
2.285714 2.612245 -13.931973 174 175 177
2.348123 2.621161 -13.979522 174 175 177
2.346667 2.560000 -13.653334 170 171 173
2.400000 2.560000 -13.653334 166 167 169
2.453333 2.560000 -13.653334 165 165 167
2.253521 2.163380 -11.538028 165 165 166
2.292135 2.157303 -11.505618 161 161 161
2.330532 2.151261 -11.473390 128 127 127
2.362117 2.139276 -11.409471 77 73 71
2.386740 2.121547 -11.314918 65 59 55
2.410959 2.104110 -11.221918 70 63 57
2.441417 2.092643 -11.160763 69 62 54
2.478261 2.086957 -11.130435 67 60 52
2.521739 2.086957 -11.130435 66 58 50
2.565217 2.086957 -11.130435 65 56 49
2.601626 2.081301 -11.100271 63 54 48
2.652174 2.086957 -11.130435 62 53 46
2.695652 2.086957 -11.130435 61 50 45
2.739130 2.086957 -11.130435 58 47 43
2.782609 2.086957 -11.130435 55 45 41
2.826087 2.086957 -11.130435 53 44 39
2.869565 2.086957 -11.130435 52 43 38
2.897297 2.075676 -11.070271 52 41 37
2.901333 2.048000 -10.922667 52 40 36
2.905263 2.021053 -10.778948 52 39 34
2.947368 2.021053 -10.778948 51 38 32
2.997361 2.026385 -10.807388 50 36 30
3.039578 2.026385 -10.807388 49 35 28
3.081794 2.026385 -10.807388 46 33 25
3.115789 2.021053 -10.778948 43 30 22
3.157895 2.021053 -10.778948 44 28 21
3.200000 2.021053 -10.778948 48 29 23
3.233596 2.015748 -10.750656 51 32 26
3.275591 2.015748 -10.750656 46 30 23
3.308901 2.010471 -10.722513 40 30 21
3.350785 2.010471 -10.722513 43 33 24
3.383812 2.005222 -10.694517 47 35 27
3.425587 2.005222 -10.694517 49 36 28
3.485564 2.015748 -10.750656 48 35 27
3.555556 2.031746 -10.835979 46 34 27
3.597884 2.031746 -10.835979 44 33 27
3.640212 2.031746 -10.835979 43 34 27
3.663158 2.021053 -10.778948 42 34 27
3.695538 2.015748 -10.750656 40 34 29
3.737533 2.015748 -10.750656 39 34 30
3.779528 2.015748 -10.750656 37 33 29
3.811518 2.010471 -10.722513 34 30 26
3.863517 2.015748 -10.750656 31 28 24
3.915789 2.021053 -10.778948 30 26 23
3.957895 2.021053 -10.778948 30 27 24
4.000000 2.021053 -10.778948 30 29 26
4.042105 2.021053 -10.778948 31 30 28
4.084210 2.021053 -10.778948 38 35 33
4.104712 2.010471 -10.722513 54 47 46
4.125000 2.000000 -10.666667 62 52 51
4.134367 1.984496 -10.583980 65 54 52
4.175711 1.984496 -10.583980 66 55 53
4.227979 1.989637 -10.611399 69 58 54
4.280519 1.994805 -10.638961 71 61 57
4.333333 2.000000 -10.666667 65 57 54
4.329897 1.979381 -10.556701 59 53 51
4.282828 1.939394 -10.343434 60 54 52
4.155340 1.864078 -9.941748 57 53 50
4.143885 1.841727 -9.822542 54 51 49
4.182254 1.841727 -9.822542 52 50 48
4.230769 1.846154 -9.846154 49 48 46
4.269231 1.846154 -9.846154 50 49 47
4.307693 1.846154 -9.846154 64 58 56
4.335732 1.841727 -9.822542 72 63 61
4.363636 1.837321 -9.799043 73 62 59
4.360189 1.819905 -9.706161 74 62 58
4.336449 1.794392 -9.570093 74 61 57
4.333333 1.777778 -9.481482 73 60 56
4.360277 1.773672 -9.459584 74 62 59
4.387097 1.769585 -9.437788 75 64 60
4.423963 1.769585 -9.437788 72 62 58
4.460829 1.769585 -9.437788 68 58 53
4.508083 1.773672 -9.459584 68 58 54
4.524138 1.765517 -9.416092 71 60 56
4.571429 1.769585 -9.437788 71 60 58
4.597701 1.765517 -9.416092 70 59 57
4.613272 1.757437 -9.372997 66 57 54
4.628702 1.749431 -9.330297 65 56 54
4.686499 1.757437 -9.372997 65 56 54
4.723112 1.757437 -9.372997 65 56 54
4.759726 1.757437 -9.372997 68 57 55
4.774487 1.749431 -9.330297 70 59 56
4.810934 1.749431 -9.330297 69 59 55
4.847381 1.749431 -9.330297 66 56 54
4.883827 1.749431 -9.330297 62 54 51
4.931507 1.753425 -9.351598 57 51 48
4.979405 1.757437 -9.372997 55 49 48
5.016018 1.757437 -9.372997 56 50 50
5.052631 1.757437 -9.372997 57 51 51
5.100917 1.761468 -9.394495 56 50 50
5.185185 1.777778 -9.481482 53 49 48
5.222222 1.777778 -9.481482 55 51 50
5.259259 1.777778 -9.481482 61 57 56
5.296296 1.777778 -9.481482 63 59 57
5.333333 1.777778 -9.481482 63 59 56
5.357968 1.773672 -9.459584 64 60 57
5.407407 1.777778 -9.481482 65 61 57
5.444445 1.777778 -9.481482 67 63 59
5.494200 1.781903 -9.503480 71 67 64
5.557109 1.790210 -9.547786 75 72 68
5.607477 1.794392 -9.570093 79 76 72
5.644860 1.794392 -9.570093 81 77 74
5.682243 1.794392 -9.570093 81 77 72
5.733021 1.798595 -9.592505 85 81 76
5.811321 1.811321 -9.660378 85 81 78
5.890737 1.824228 -9.729217 75 74 72
5.942857 1.828571 -9.752381 74 74 74
6.111922 1.868613 -9.965937 77 79 82
6.211302 1.886978 -10.063882 98 101 105
6.266010 1.891626 -10.088670 172 177 182
6.305418 1.891626 -10.088670 205 211 217
6.360494 1.896296 -10.113581 205 212 218
6.431762 1.905707 -10.163772 206 213 219
10.187500 3.000000 -16.000000 206 213 219
10.250000 3.000000 -16.000000 205 212 218
10.312500 3.000000 -16.000000 205 212 218
10.375000 3.000000 -16.000000 205 212 218
10.625000 3.000000 -16.000000 205 212 218
9.437288 2.603390 -13.884746 204 211 217
9.459459 2.594594 -13.837838 204 211 217
9.418060 2.568562 -13.698997 204 211 217
9.731958 2.639175 -14.075602 204 211 217
9.923345 2.675958 -14.271777 204 211 217
10.013986 2.685315 -14.321678 204 211 217
10.034843 2.675958 -14.271777 203 210 216
10.020761 2.657439 -14.173011 203 210 216
9.972603 2.630137 -14.027397 203 210 216
10.131488 2.657439 -14.173011 202 209 215
10.257840 2.675958 -14.271777 202 209 215
10.349650 2.685315 -14.321678 202 209 215
10.405595 2.685315 -14.321678 202 209 215
10.425087 2.675958 -14.271777 202 209 215
10.444445 2.666667 -14.222222 202 209 215
10.536586 2.675958 -14.271777 202 209 215
11.054545 2.792727 -14.894546 202 209 215
11.937500 3.000000 -16.000000 202 208 214
12.000000 3.000000 -16.000000 202 208 214
12.062500 3.000000 -16.000000 203 208 214
12.125000 3.000000 -16.000000 203 208 214
12.187500 3.000000 -16.000000 202 207 213
12.250000 3.000000 -16.000000 202 207 213
11.461818 2.792727 -14.894546 202 207 213
11.234042 2.723404 -14.524822 202 207 213
11.171929 2.694737 -14.371930 202 207 213
11.188811 2.685315 -14.321678 202 207 213
11.244755 2.685315 -14.321678 201 206 212
11.752728 2.792727 -14.894546 201 206 212
12.687500 3.000000 -16.000000 201 206 212
12.750000 3.000000 -16.000000 201 206 212
12.812500 3.000000 -16.000000 201 206 212
12.875000 3.000000 -16.000000 200 205 211
12.937500 3.000000 -16.000000 200 205 211
13.000000 3.000000 -16.000000 200 205 211
13.062500 3.000000 -16.000000 199 204 210
13.125000 3.000000 -16.000000 199 204 210
13.187500 3.000000 -16.000000 199 204 210
13.250000 3.000000 -16.000000 199 204 210
13.312500 3.000000 -16.000000 199 204 210
13.375000 3.000000 -16.000000 198 203 209
13.562500 3.000000 -16.000000 197 202 206
13.063670 2.876405 -15.340824 197 202 206
13.074627 2.865672 -15.283582 196 201 205
13.037037 2.844445 -15.170370 196 201 205
13.194030 2.865672 -15.283582 196 201 205
13.875000 3.000000 -16.000000 196 201 205
13.937500 3.000000 -16.000000 195 200 204
14.000000 3.000000 -16.000000 195 200 204
14.062500 3.000000 -16.000000 195 200 204
14.125000 3.000000 -16.000000 195 200 204
14.187500 3.000000 -16.000000 194 199 203
14.250000 3.000000 -16.000000 194 199 203
14.312500 3.000000 -16.000000 194 199 203
14.375000 3.000000 -16.000000 193 198 202
14.437500 3.000000 -16.000000 193 198 202
14.500000 3.000000 -16.000000 192 197 201
14.562500 3.000000 -16.000000 192 197 201
14.625000 3.000000 -16.000000 192 197 201
14.687500 3.000000 -16.000000 191 196 200
14.750000 3.000000 -16.000000 191 196 200
14.812500 3.000000 -16.000000 191 196 200
14.875000 3.000000 -16.000000 190 195 199
14.937500 3.000000 -16.000000 190 195 199
15.000000 3.000000 -16.000000 189 194 198
15.062500 3.000000 -16.000000 189 194 198
15.125000 3.000000 -16.000000 189 194 198
15.187500 3.000000 -16.000000 188 193 197
15.250000 3.000000 -16.000000 187 192 196
15.312500 3.000000 -16.000000 187 192 196
15.375000 3.000000 -16.000000 187 192 196
15.437500 3.000000 -16.000000 186 191 195
15.500000 3.000000 -16.000000 186 191 195
15.562500 3.000000 -16.000000 186 191 195
15.625000 3.000000 -16.000000 185 190 194
15.687500 3.000000 -16.000000 185 190 194
15.750000 3.000000 -16.000000 184 189 193
15.812500 3.000000 -16.000000 184 189 193
15.875000 3.000000 -16.000000 184 189 193
15.937500 3.000000 -16.000000 183 188 192
-5.688889 1.856790 -10.113581 62 75 78
-5.649383 1.856790 -10.113581 61 75 78
-5.651742 1.870647 -10.189054 56 70 73
-5.640000 1.880000 -10.240000 57 71 74
-5.600000 1.880000 -10.240000 63 77 80
-5.573935 1.884712 -10.265664 73 87 90
-5.589873 1.903798 -10.369620 67 81 84
-5.678757 1.948187 -10.611399 59 72 76
-5.696335 1.968586 -10.722513 61 74 79
-5.714286 1.989418 -10.835979 65 77 83
-5.732620 2.010695 -10.951872 66 79 85
-5.814208 2.054645 -11.191257 68 81 87
-5.802198 2.065934 -11.252748 71 85 91
-5.758242 2.065934 -11.252748 68 82 87
-5.714286 2.065934 -11.252748 63 78 83
-5.685950 2.071625 -11.283747 60 75 80
-5.720670 2.100559 -11.441340 62 77 81
-5.789174 2.142450 -11.669516 63 78 81
-5.760000 2.148571 -11.702857 67 82 85
-5.714286 2.148571 -11.702857 70 85 88
-5.636364 2.136364 -11.636364 76 91 94
-5.590909 2.136364 -11.636364 85 100 103
-5.545455 2.136364 -11.636364 100 115 118
-5.500000 2.136364 -11.636364 103 118 121
-5.501433 2.154728 -11.736390 100 114 117
-5.487032 2.167147 -11.804034 92 106 109
-5.504373 2.192420 -11.941691 91 105 108
-5.457726 2.192420 -11.941691 97 111 114
-5.411079 2.192420 -11.941691 91 105 108
-5.380117 2.198830 -11.976608 86 100 103
-5.348974 2.205279 -12.011730 73 87 90
-5.302053 2.205279 -12.011730 64 78 81
-5.301775 2.224852 -12.118343 69 83 86
-5.254438 2.224852 -12.118343 71 85 88
-5.207100 2.224852 -12.118343 75 89 92
-5.159763 2.224852 -12.118343 75 89 92
-5.127596 2.231454 -12.154303 72 86 89
-5.095238 2.238095 -12.190476 71 85 88
-5.032641 2.231454 -12.154303 66 80 83
-4.970414 2.224852 -12.118343 66 80 83
-4.923077 2.224852 -12.118343 63 77 80
-4.904762 2.238095 -12.190476 62 76 79
-4.871642 2.244776 -12.226866 61 75 78
-4.882175 2.271903 -12.374622 66 81 85
-5.000000 2.350000 -12.800000 97 112 117
-5.369492 2.549153 -13.884746 166 182 188
-5.406897 2.593103 -14.124138 187 204 211
-5.484099 2.657244 -14.473498 187 204 211
-5.545126 2.714802 -14.787004 186 204 211
-5.629630 2.785185 -15.170370 185 203 211
-5.875000 2.937500 -16.000000 184 202 210
-5.812500 2.937500 -16.000000 183 202 209
-5.750000 2.937500 -16.000000 183 201 209
-5.687500 2.937500 -16.000000 183 201 209
-5.625000 2.937500 -16.000000 182 201 208
-5.562500 2.937500 -16.000000 181 200 207
-5.500000 2.937500 -16.000000 180 198 206
-5.437500 2.937500 -16.000000 179 196 204
-5.375000 2.937500 -16.000000 178 195 203
-5.312500 2.937500 -16.000000 177 194 202
-5.052631 2.827068 -15.398497 176 193 201
-5.187500 2.937500 -16.000000 175 192 200
-5.125000 2.937500 -16.000000 174 191 199
-5.062500 2.937500 -16.000000 173 190 198
-5.000000 2.937500 -16.000000 172 189 197
-4.937500 2.937500 -16.000000 171 188 196
-4.875000 2.937500 -16.000000 169 186 194
-4.812500 2.937500 -16.000000 168 185 193
-4.750000 2.937500 -16.000000 167 184 192
-4.687500 2.937500 -16.000000 166 183 191
-4.625000 2.937500 -16.000000 166 183 191
-4.562500 2.937500 -16.000000 166 183 191
-4.500000 2.937500 -16.000000 167 184 192
-4.437500 2.937500 -16.000000 167 184 192
-4.375000 2.937500 -16.000000 168 185 193
-4.312500 2.937500 -16.000000 168 185 193
-4.250000 2.937500 -16.000000 168 185 193
-4.187500 2.937500 -16.000000 169 186 194
-4.125000 2.937500 -16.000000 169 186 194
-4.062500 2.937500 -16.000000 169 186 194
-4.000000 2.937500 -16.000000 170 187 195
-3.937500 2.937500 -16.000000 170 187 195
-3.875000 2.937500 -16.000000 170 187 195
-3.812500 2.937500 -16.000000 170 187 195
-3.582090 2.805970 -15.283582 171 188 196
-3.687500 2.937500 -16.000000 173 190 198
-3.625000 2.937500 -16.000000 173 190 198
-3.562500 2.937500 -16.000000 173 190 198
-3.500000 2.937500 -16.000000 173 190 198
-3.437500 2.937500 -16.000000 173 190 198
-3.375000 2.937500 -16.000000 173 190 198
-3.312500 2.937500 -16.000000 173 190 198
-3.250000 2.937500 -16.000000 173 190 198
-3.187500 2.937500 -16.000000 173 190 198
-3.125000 2.937500 -16.000000 173 190 198
-3.062500 2.937500 -16.000000 173 190 198
-3.000000 2.937500 -16.000000 174 191 199
-2.937500 2.937500 -16.000000 175 192 200
-2.875000 2.937500 -16.000000 176 193 201
-2.812500 2.937500 -16.000000 177 194 202
-2.750000 2.937500 -16.000000 178 195 203
-2.687500 2.937500 -16.000000 179 196 204
-2.625000 2.937500 -16.000000 179 196 204
-2.562500 2.937500 -16.000000 179 196 204
-2.500000 2.937500 -16.000000 181 197 205
-2.437500 2.937500 -16.000000 182 198 206
-2.375000 2.937500 -16.000000 181 197 205
-2.312500 2.937500 -16.000000 181 197 205
-2.250000 2.937500 -16.000000 181 197 205
-2.187500 2.937500 -16.000000 181 197 205
-2.125000 2.937500 -16.000000 181 198 206
-2.062500 2.937500 -16.000000 183 199 207
-2.000000 2.937500 -16.000000 186 200 208
-1.937500 2.937500 -16.000000 187 200 208
-1.875000 2.937500 -16.000000 189 202 210
-1.812500 2.937500 -16.000000 191 204 212
-1.750000 2.937500 -16.000000 193 206 214
-1.687500 2.937500 -16.000000 196 209 217
-1.625000 2.937500 -16.000000 199 212 220
-1.562500 2.937500 -16.000000 202 215 223
-1.500000 2.937500 -16.000000 204 217 225
-1.437500 2.937500 -16.000000 206 219 227
-1.375000 2.937500 -16.000000 207 220 228
-1.312500 2.937500 -16.000000 208 221 229
-1.250000 2.937500 -16.000000 208 221 229
-1.187500 2.937500 -16.000000 208 221 229
-1.125000 2.937500 -16.000000 209 222 230
-1.062500 2.937500 -16.000000 209 222 230
-1.000000 2.937500 -16.000000 209 222 229
-0.937500 2.937500 -16.000000 210 223 229
-0.772414 2.593103 -14.124138 210 223 229
1.625000 2.937500 -16.000000 174 174 176
1.687500 2.937500 -16.000000 172 172 174
1.750000 2.937500 -16.000000 172 172 174
1.744361 2.827068 -15.398497 172 172 174
1.804511 2.827068 -15.398497 172 172 174
1.937500 2.937500 -16.000000 172 172 174
2.000000 2.937500 -16.000000 171 171 173
1.984962 2.827068 -15.398497 171 171 173
2.007380 2.774908 -15.114391 171 171 173
2.051282 2.754579 -15.003663 171 171 173
2.064516 2.695340 -14.681004 171 171 173
2.168498 2.754579 -15.003663 171 171 173
2.218978 2.744525 -14.948905 171 171 173
2.212766 2.666667 -14.524822 171 171 173
2.214533 2.602076 -14.173011 172 172 174
2.262069 2.593103 -14.124138 173 174 176
2.309278 2.584193 -14.075602 174 174 176
2.364261 2.584193 -14.075602 171 172 174
2.402730 2.566553 -13.979522 168 169 171
2.448980 2.557823 -13.931973 165 166 168
2.453333 2.506667 -13.653334 166 166 168
2.227273 2.136364 -11.636364 165 165 165
2.259887 2.124294 -11.570621 165 165 166
2.298592 2.118310 -11.538028 161 161 161
2.330532 2.106443 -11.473390 125 123 123
2.362117 2.094707 -11.409471 75 72 69
2.380165 2.071625 -11.283747 65 60 56
2.404372 2.054645 -11.191257 70 63 58
2.441417 2.049046 -11.160763 71 64 56
2.485014 2.049046 -11.160763 68 61 53
2.521739 2.043478 -11.130435 67 58 51
2.565217 2.043478 -11.130435 65 56 50
2.608696 2.043478 -11.130435 65 56 50
2.652174 2.043478 -11.130435 61 52 47
2.695652 2.043478 -11.130435 59 48 45
2.739130 2.043478 -11.130435 57 46 43
2.767568 2.032432 -11.070271 53 43 41
2.818428 2.037940 -11.100271 51 41 38
2.861789 2.037940 -11.100271 49 40 36
2.905149 2.037940 -11.100271 50 40 36
2.924731 2.021505 -11.010753 50 39 35
2.951872 2.010695 -10.951872 51 38 34
2.955145 1.984169 -10.807388 50 37 33
3.021277 2.000000 -10.893617 50 37 32
3.063830 2.000000 -10.893617 50 36 30
3.106383 2.000000 -10.893617 48 35 27
3.124011 1.984169 -10.807388 46 33 25
3.157895 1.978947 -10.778948 47 32 25
3.191601 1.973753 -10.750656 51 32 26
3.233596 1.973753 -10.750656 52 32 26
3.267016 1.968586 -10.722513 47 31 24
3.308901 1.968586 -10.722513 42 32 23
3.342036 1.963446 -10.694517 45 33 25
3.383812 1.963446 -10.694517 48 35 27
3.425587 1.963446 -10.694517 48 35 27
3.494737 1.978947 -10.778948 47 34 26
3.555556 1.989418 -10.835979 44 32 25
3.597884 1.989418 -10.835979 42 31 25
3.621053 1.978947 -10.778948 40 32 24
3.653543 1.973753 -10.750656 38 32 24
3.705263 1.978947 -10.778948 37 32 26
3.747368 1.978947 -10.778948 35 31 26
3.789474 1.978947 -10.778948 32 29 24
3.831579 1.978947 -10.778948 29 25 21
3.873684 1.978947 -10.778948 27 24 20
3.915789 1.978947 -10.778948 28 24 21
3.968338 1.984169 -10.807388 31 27 24
4.000000 1.978947 -10.778948 34 31 27
4.042105 1.978947 -10.778948 36 33 29
4.062827 1.968586 -10.722513 43 39 35
4.093995 1.963446 -10.694517 56 48 46
4.093023 1.943152 -10.583980 59 49 47
4.123711 1.938144 -10.556701 65 53 51
4.175711 1.943152 -10.583980 69 58 56
4.227979 1.948187 -10.611399 67 57 54
4.280519 1.953247 -10.638961 63 56 52
4.288660 1.938144 -10.556701 56 51 47
4.242424 1.898990 -10.343434 55 51 48
4.177340 1.852217 -10.088670 57 53 50
4.115385 1.807692 -9.846154 53 49 46
4.143885 1.803357 -9.822542 50 46 45
4.182254 1.803357 -9.822542 49 45 44
4.230769 1.807692 -9.846154 47 44 42
4.269231 1.807692 -9.846154 54 50 49
4.297362 1.803357 -9.822542 68 60 58
4.325359 1.799043 -9.799043 71 60 58
4.342857 1.790476 -9.752381 70 57 54
4.309134 1.761124 -9.592505 71 57 53
4.296296 1.740741 -9.481482 72 58 53
4.313364 1.732719 -9.437788 73 59 54
4.350230 1.732719 -9.437788 76 62 58
4.387097 1.732719 -9.437788 75 64 60
4.423963 1.732719 -9.437788 72 63 58
4.450575 1.728736 -9.416092 71 62 57
4.487356 1.728736 -9.416092 70 59 55
4.524138 1.728736 -9.416092 70 59 55
4.560920 1.728736 -9.416092 72 60 58
4.576659 1.720824 -9.372997 71 60 58
4.592255 1.712984 -9.330297 67 57 55
4.618182 1.709091 -9.309091 66 56 54
4.654545 1.709091 -9.309091 67 57 56
4.690909 1.709091 -9.309091 67 56 55
4.705883 1.701357 -9.266969 67 56 54
4.710113 1.689888 -9.204494 66 55 51
4.746068 1.689888 -9.204494 67 57 53
4.814480 1.701357 -9.266969 66 56 52
4.861678 1.705215 -9.287982 60 51 48
4.909091 1.709091 -9.309091 55 49 46
4.945455 1.709091 -9.309091 54 48 47
5.004566 1.716895 -9.351598 55 49 49
5.052631 1.720824 -9.372997 53 47 47
5.124424 1.732719 -9.437788 50 44 44
5.185185 1.740741 -9.481482 49 44 44
5.222222 1.740741 -9.481482 50 46 45
5.259259 1.740741 -9.481482 55 51 50
5.284065 1.736721 -9.459584 57 54 52
5.321016 1.736721 -9.459584 59 56 53
5.357968 1.736721 -9.459584 61 59 55
5.407407 1.740741 -9.481482 62 60 56
5.444445 1.740741 -9.481482 61 59 56
5.481482 1.740741 -9.481482 61 59 55
5.531322 1.744780 -9.503480 65 63 59
5.581395 1.748837 -9.525581 76 74 70
5.618605 1.748837 -9.525581 78 76 72
5.655814 1.748837 -9.525581 74 71 68
5.719626 1.757009 -9.570093 77 74 70
5.770492 1.761124 -9.592505 81 79 77
5.849057 1.773585 -9.660378 75 75 73
5.928741 1.786223 -9.729217 71 71 72
6.038462 1.807692 -9.846154 74 75 78
6.211302 1.847666 -10.063882 80 82 85
6.266010 1.852217 -10.088670 121 124 128
6.305418 1.852217 -10.088670 191 197 202
6.360494 1.856790 -10.113581 206 213 219
6.431762 1.866005 -10.163772 207 214 220
6.520000 1.880000 -10.240000 207 214 220
10.250000 2.937500 -16.000000 207 214 220
10.312500 2.937500 -16.000000 206 213 219
10.375000 2.937500 -16.000000 206 213 219
10.625000 2.937500 -16.000000 206 213 219
10.875000 2.937500 -16.000000 205 212 218
10.937500 2.937500 -16.000000 204 211 217
9.777778 2.611111 -14.222222 204 211 217
9.833333 2.611111 -14.222222 204 211 217
9.958042 2.629371 -14.321678 204 211 217
10.013986 2.629371 -14.321678 204 211 217
10.000000 2.611111 -14.222222 204 211 217
9.986207 2.593103 -14.124138 203 210 216
9.972603 2.575342 -14.027397 203 210 216
10.027397 2.575342 -14.027397 203 210 216
10.257840 2.620209 -14.271777 203 210 216
10.349650 2.629371 -14.321678 203 210 216
10.405595 2.629371 -14.321678 203 210 216
10.425087 2.620209 -14.271777 203 210 216
10.444445 2.611111 -14.222222 202 209 215
10.610526 2.638597 -14.371930 202 209 215
11.343284 2.805970 -15.283582 202 209 215
11.937500 2.937500 -16.000000 202 209 215
12.000000 2.937500 -16.000000 203 208 214
12.062500 2.937500 -16.000000 203 208 214
12.125000 2.937500 -16.000000 203 208 214
12.187500 2.937500 -16.000000 203 208 214
12.250000 2.937500 -16.000000 202 207 213
12.312500 2.937500 -16.000000 202 207 213
12.375000 2.937500 -16.000000 202 207 213
11.749078 2.774908 -15.114391 202 207 213
11.267606 2.647887 -14.422535 202 207 213
11.694546 2.734545 -14.894546 202 207 213
12.625000 2.937500 -16.000000 202 207 213
12.687500 2.937500 -16.000000 201 206 212
12.750000 2.937500 -16.000000 201 206 212
12.812500 2.937500 -16.000000 201 206 212
12.875000 2.937500 -16.000000 200 205 211
12.937500 2.937500 -16.000000 200 205 211
13.000000 2.937500 -16.000000 200 205 211
13.062500 2.937500 -16.000000 200 205 211
13.125000 2.937500 -16.000000 200 205 211
13.187500 2.937500 -16.000000 199 204 210
13.250000 2.937500 -16.000000 199 204 210
13.312500 2.937500 -16.000000 199 204 210
13.625000 2.937500 -16.000000 197 202 206
13.123595 2.816479 -15.340824 197 202 206
13.037037 2.785185 -15.170370 196 201 205
13.000000 2.764706 -15.058824 196 201 205
13.155556 2.785185 -15.170370 196 201 205
13.937500 2.937500 -16.000000 196 201 205
14.000000 2.937500 -16.000000 196 201 205
14.062500 2.937500 -16.000000 195 200 204
14.125000 2.937500 -16.000000 195 200 204
14.187500 2.937500 -16.000000 195 200 204
14.250000 2.937500 -16.000000 194 199 203
14.312500 2.937500 -16.000000 194 199 203
14.375000 2.937500 -16.000000 193 198 202
14.437500 2.937500 -16.000000 193 198 202
14.500000 2.937500 -16.000000 193 198 202
14.562500 2.937500 -16.000000 192 197 201
14.625000 2.937500 -16.000000 192 197 201
14.687500 2.937500 -16.000000 192 197 201
14.750000 2.937500 -16.000000 191 196 200
14.812500 2.937500 -16.000000 191 196 200
14.875000 2.937500 -16.000000 190 195 199
14.937500 2.937500 -16.000000 190 195 199
15.000000 2.937500 -16.000000 190 195 199
15.062500 2.937500 -16.000000 189 194 198
15.125000 2.937500 -16.000000 189 194 198
15.187500 2.937500 -16.000000 189 194 198
15.250000 2.937500 -16.000000 188 193 197
15.312500 2.937500 -16.000000 187 192 196
15.375000 2.937500 -16.000000 187 192 196
15.437500 2.937500 -16.000000 187 192 196
15.500000 2.937500 -16.000000 186 191 195
15.562500 2.937500 -16.000000 186 191 195
15.625000 2.937500 -16.000000 185 190 194
15.687500 2.937500 -16.000000 185 190 194
15.750000 2.937500 -16.000000 185 190 194
15.812500 2.937500 -16.000000 184 189 193
15.875000 2.937500 -16.000000 184 189 193
15.937500 2.937500 -16.000000 184 189 193
-5.688889 1.817284 -10.113581 61 75 78
-5.649383 1.817284 -10.113581 61 75 78
-5.651742 1.830846 -10.189054 59 73 76
-5.640000 1.840000 -10.240000 55 69 72
-5.600000 1.840000 -10.240000 65 79 82
-5.630380 1.863291 -10.369620 84 98 101
-5.735065 1.911688 -10.638961 89 103 106
-5.738220 1.926702 -10.722513 89 102 105
-5.726316 1.936842 -10.778948 89 101 105
-5.714286 1.947090 -10.835979 90 101 107
-5.702127 1.957447 -10.893617 84 95 100
-5.814208 2.010929 -11.191257 84 95 101
-5.899441 2.055866 -11.441340 84 97 103
-5.774105 2.027548 -11.283747 75 88 93
-5.730028 2.027548 -11.283747 64 77 83
-5.685950 2.027548 -11.283747 63 77 82
-5.720670 2.055866 -11.441340 62 76 80
-5.756374 2.084986 -11.603399 63 78 81
-5.743590 2.096866 -11.669516 66 81 84
-5.681818 2.090909 -11.636364 65 81 84
-5.636364 2.090909 -11.636364 71 86 89
-5.590909 2.090909 -11.636364 84 100 102
-5.545455 2.090909 -11.636364 96 111 114
-5.500000 2.090909 -11.636364 101 116 118
-5.470086 2.096866 -11.669516 108 122 125
-5.455587 2.108882 -11.736390 107 121 124
-5.425287 2.114943 -11.770115 100 114 116
-5.363897 2.108882 -11.736390 94 108 111
-5.364162 2.127168 -11.838150 96 110 113
-5.348837 2.139535 -11.906977 91 105 108
-5.333333 2.152047 -11.976608 94 108 111
-5.286550 2.152047 -11.976608 80 94 97
-5.255132 2.158358 -12.011730 68 81 84
-5.208211 2.158358 -12.011730 74 88 91
-5.191741 2.171092 -12.082596 74 88 91
-5.159763 2.177515 -12.118343 77 91 94
-5.142857 2.190476 -12.190476 74 88 91
-5.095238 2.190476 -12.190476 74 88 91
-5.047619 2.190476 -12.190476 67 81 84
-4.985163 2.183976 -12.154303 65 79 82
-4.952381 2.190476 -12.190476 62 76 79
-4.904762 2.190476 -12.190476 65 79 82
-4.871642 2.197015 -12.226866 63 77 80
-4.867470 2.216867 -12.337349 62 77 81
-5.000000 2.300000 -12.800000 83 98 103
-5.462069 2.537931 -14.124138 137 153 160
-5.501754 2.582456 -14.371930 166 182 189
-5.582734 2.647482 -14.733813 178 195 202
-5.565217 2.666667 -14.840580 185 203 210
-5.588235 2.705882 -15.058824 184 203 210
-5.591078 2.736059 -15.226766 183 202 209
-5.812500 2.875000 -16.000000 182 201 208
-5.750000 2.875000 -16.000000 182 201 208
-5.687500 2.875000 -16.000000 182 201 208
-5.625000 2.875000 -16.000000 182 201 208
-5.562500 2.875000 -16.000000 181 200 207
-5.500000 2.875000 -16.000000 181 199 206
-5.437500 2.875000 -16.000000 180 197 205
-5.375000 2.875000 -16.000000 179 196 204
-5.112782 2.766917 -15.398497 178 195 203
-5.052631 2.766917 -15.398497 176 193 201
-4.992481 2.766917 -15.398497 175 192 200
-5.125000 2.875000 -16.000000 175 192 200
-5.062500 2.875000 -16.000000 174 191 199
-5.000000 2.875000 -16.000000 173 190 198
-4.937500 2.875000 -16.000000 172 189 197
-4.875000 2.875000 -16.000000 170 187 195
-4.812500 2.875000 -16.000000 169 186 194
-4.750000 2.875000 -16.000000 167 184 192
-4.687500 2.875000 -16.000000 166 183 191
-4.625000 2.875000 -16.000000 166 183 191
-4.562500 2.875000 -16.000000 166 183 191
-4.500000 2.875000 -16.000000 166 183 191
-4.437500 2.875000 -16.000000 166 183 192
-4.375000 2.875000 -16.000000 167 184 192
-4.312500 2.875000 -16.000000 167 184 193
-4.250000 2.875000 -16.000000 168 185 193
-4.187500 2.875000 -16.000000 168 185 193
-4.125000 2.875000 -16.000000 168 185 193
-4.062500 2.875000 -16.000000 169 185 193
-4.000000 2.875000 -16.000000 169 186 194
-3.937500 2.875000 -16.000000 170 187 195
-3.875000 2.875000 -16.000000 171 188 196
-3.812500 2.875000 -16.000000 172 189 197
-3.750000 2.875000 -16.000000 173 190 198
-3.687500 2.875000 -16.000000 174 191 199
-3.625000 2.875000 -16.000000 174 191 199
-3.562500 2.875000 -16.000000 174 191 199
-3.500000 2.875000 -16.000000 174 191 199
-3.437500 2.875000 -16.000000 175 191 199
-3.375000 2.875000 -16.000000 174 191 199
-3.312500 2.875000 -16.000000 174 191 199
-3.250000 2.875000 -16.000000 174 191 199
-3.187500 2.875000 -16.000000 174 191 199
-3.125000 2.875000 -16.000000 174 191 199
-3.062500 2.875000 -16.000000 174 191 199
-3.000000 2.875000 -16.000000 174 191 199
-2.937500 2.875000 -16.000000 174 192 200
-2.875000 2.875000 -16.000000 175 193 200
-2.812500 2.875000 -16.000000 176 193 201
-2.750000 2.875000 -16.000000 177 194 202
-2.687500 2.875000 -16.000000 178 195 203
-2.625000 2.875000 -16.000000 179 196 204
-2.562500 2.875000 -16.000000 179 196 204
-2.500000 2.875000 -16.000000 180 197 205
-2.437500 2.875000 -16.000000 181 198 206
-2.375000 2.875000 -16.000000 181 198 206
-2.312500 2.875000 -16.000000 180 197 205
-2.250000 2.875000 -16.000000 180 197 205
-2.187500 2.875000 -16.000000 180 197 205
-2.125000 2.875000 -16.000000 180 197 205
-2.062500 2.875000 -16.000000 181 198 206
-2.000000 2.875000 -16.000000 184 198 206
-1.937500 2.875000 -16.000000 186 199 207
-1.875000 2.875000 -16.000000 187 200 208
-1.812500 2.875000 -16.000000 189 202 210
-1.750000 2.875000 -16.000000 191 204 212
-1.687500 2.875000 -16.000000 193 206 214
-1.625000 2.875000 -16.000000 196 209 217
-1.562500 2.875000 -16.000000 199 212 220
-1.500000 2.875000 -16.000000 201 214 222
-1.437500 2.875000 -16.000000 204 217 225
-1.375000 2.875000 -16.000000 207 220 228
-1.312500 2.875000 -16.000000 208 221 229
-1.250000 2.875000 -16.000000 208 221 229
-1.187500 2.875000 -16.000000 208 221 229
-1.125000 2.875000 -16.000000 209 222 230
-1.062500 2.875000 -16.000000 209 222 230
-1.000000 2.875000 -16.000000 209 222 229
-0.937500 2.875000 -16.000000 210 223 229
-0.875000 2.875000 -16.000000 210 223 229
1.625000 2.875000 -16.000000 173 173 175
1.687500 2.875000 -16.000000 172 172 174
1.750000 2.875000 -16.000000 172 172 174
1.812500 2.875000 -16.000000 172 172 174
1.875000 2.875000 -16.000000 172 172 174
1.937500 2.875000 -16.000000 172 172 174
2.000000 2.875000 -16.000000 171 171 173
2.062500 2.875000 -16.000000 171 171 173
2.037453 2.756554 -15.340824 171 171 173
2.066421 2.715867 -15.114391 171 171 173
2.157303 2.756554 -15.340824 171 171 173
2.184502 2.715867 -15.114391 171 171 173
2.227106 2.695971 -15.003663 171 171 173
2.197183 2.591549 -14.422535 172 172 174
2.222222 2.555556 -14.222222 173 173 175
2.269896 2.546713 -14.173011 174 174 176
2.317241 2.537931 -14.124138 172 173 175
2.364261 2.529210 -14.075602 168 169 171
2.394558 2.503401 -13.931973 166 167 169
2.448980 2.503401 -13.931973 165 166 168
2.188034 2.096866 -11.669516 165 165 166
2.227273 2.090909 -11.636364 165 165 165
2.259887 2.079096 -11.570621 166 165 166
2.298592 2.073239 -11.538028 160 160 160
2.330532 2.061625 -11.473390 119 118 118
2.349030 2.038781 -11.346260 73 69 67
2.380165 2.027548 -11.283747 66 60 56
2.404372 2.010929 -11.191257 70 63 58
2.441417 2.005450 -11.160763 73 66 59
2.491803 2.010929 -11.191257 70 63 55
2.521739 2.000000 -11.130435 67 59 52
2.565217 2.000000 -11.130435 66 57 52
2.608696 2.000000 -11.130435 65 56 51
2.652174 2.000000 -11.130435 60 50 47
2.695652 2.000000 -11.130435 56 46 44
2.724324 1.989189 -11.070271 55 45 43
2.767568 1.989189 -11.070271 53 43 41
2.810811 1.989189 -11.070271 50 41 38
2.861789 1.994580 -11.100271 48 38 36
2.913043 2.000000 -11.130435 49 38 35
2.956522 2.000000 -11.130435 49 38 35
2.983784 1.989189 -11.070271 49 37 33
3.002681 1.973190 -10.981234 50 36 33
3.045576 1.973190 -10.981234 51 37 33
3.080214 1.967914 -10.951872 51 36 30
3.114667 1.962667 -10.922667 49 36 28
3.124011 1.941952 -10.807388 49 36 28
3.149606 1.931759 -10.750656 51 36 28
3.191601 1.931759 -10.750656 53 34 28
3.233596 1.931759 -10.750656 51 31 26
3.267016 1.926702 -10.722513 47 31 24
3.308901 1.926702 -10.722513 44 32 24
3.342036 1.921671 -10.694517 46 34 25
3.383812 1.921671 -10.694517 47 34 26
3.434555 1.926702 -10.722513 47 34 26
3.494737 1.936842 -10.778948 45 33 25
3.536842 1.936842 -10.778948 43 30 24
3.578947 1.936842 -10.778948 40 30 23
3.592689 1.921671 -10.694517 38 30 22
3.643979 1.926702 -10.722513 35 30 22
3.705263 1.936842 -10.778948 33 30 24
3.747368 1.936842 -10.778948 31 28 23
3.799472 1.941952 -10.807388 28 25 20
3.831579 1.936842 -10.778948 25 22 18
3.883905 1.941952 -10.807388 26 22 19
3.926121 1.941952 -10.807388 29 25 22
3.968338 1.941952 -10.807388 34 30 27
4.000000 1.936842 -10.778948 40 36 33
4.020942 1.926702 -10.722513 44 41 35
4.052219 1.921671 -10.694517 49 44 38
4.072727 1.911688 -10.638961 54 46 41
4.093023 1.901809 -10.583980 59 48 45
4.123711 1.896907 -10.556701 65 53 51
4.175711 1.901809 -10.583980 68 57 55
4.227979 1.906736 -10.611399 60 52 49
4.247423 1.896907 -10.556701 53 49 44
4.212658 1.863291 -10.369620 51 48 43
4.200000 1.840000 -10.240000 53 50 46
4.156863 1.803922 -10.039216 53 49 46
4.105515 1.764988 -9.822542 50 46 43
4.124105 1.756563 -9.775657 47 43 42
4.162291 1.756563 -9.775657 45 41 40
4.220623 1.764988 -9.822542 46 41 41
4.258993 1.764988 -9.822542 58 53 53
4.287081 1.760766 -9.799043 66 57 56
4.304762 1.752381 -9.752381 67 55 53
4.281690 1.727700 -9.615024 69 56 53
4.259259 1.703704 -9.481482 73 59 55
4.266667 1.691954 -9.416092 75 60 55
4.303448 1.691954 -9.416092 77 63 58
4.350230 1.695853 -9.437788 78 65 60
4.387097 1.695853 -9.437788 76 64 60
4.423963 1.695853 -9.437788 71 62 57
4.440367 1.688073 -9.394495 68 59 54
4.477064 1.688073 -9.394495 67 56 52
4.513762 1.688073 -9.394495 68 57 53
4.550459 1.688073 -9.394495 69 56 53
4.555809 1.676538 -9.330297 67 55 53
4.571429 1.668934 -9.287982 67 55 53
4.597285 1.665158 -9.266969 64 54 52
4.623025 1.661400 -9.246050 63 52 51
4.648649 1.657658 -9.225225 63 51 50
4.663677 1.650224 -9.183857 63 52 49
4.699552 1.650224 -9.183857 63 52 48
4.735426 1.650224 -9.183857 66 55 51
4.782022 1.653933 -9.204494 63 53 50
4.828829 1.657658 -9.225225 57 49 46
4.875846 1.661400 -9.246050 56 50 47
4.911964 1.661400 -9.246050 58 52 51
4.959276 1.665158 -9.266969 56 50 50
5.052631 1.684211 -9.372997 49 43 42
5.112644 1.691954 -9.416092 47 41 41
5.173210 1.699769 -9.459584 49 45 44
5.210162 1.699769 -9.459584 48 44 42
5.235023 1.695853 -9.437788 51 47 45
5.271889 1.695853 -9.437788 55 51 50
5.308756 1.695853 -9.437788 57 55 51
5.357968 1.699769 -9.459584 57 56 52
5.407407 1.703704 -9.481482 58 57 53
5.444445 1.703704 -9.481482 58 57 53
5.481482 1.703704 -9.481482 58 57 53
5.531322 1.707657 -9.503480 62 61 57
5.555555 1.703704 -9.481482 70 69 65
5.605568 1.707657 -9.503480 73 72 69
5.642692 1.707657 -9.503480 69 68 65
5.693023 1.711628 -9.525581 68 68 66
5.757010 1.719626 -9.570093 74 74 72
5.821596 1.727700 -9.615024 73 73 73
5.900709 1.739953 -9.683215 69 70 71
5.995227 1.756563 -9.775657 71 72 74
6.196078 1.803922 -10.039216 76 77 80
6.266010 1.812808 -10.088670 89 90 94
6.305418 1.812808 -10.088670 156 161 166
6.360494 1.817284 -10.113581 204 211 217
6.431762 1.826303 -10.163772 207 214 220
6.503741 1.835411 -10.214464 207 214 220
6.643038 1.863291 -10.369620 207 214 220
10.312500 2.875000 -16.000000 207 214 220
8.888889 2.405229 -13.385621 206 213 219
10.937500 2.875000 -16.000000 205 212 218
11.000000 2.875000 -16.000000 204 211 217
11.062500 2.875000 -16.000000 204 211 217
11.125000 2.875000 -16.000000 204 211 217
10.568266 2.715867 -15.114391 204 211 217
10.105263 2.582456 -14.371930 204 211 217
10.055555 2.555556 -14.222222 204 211 217
10.111111 2.555556 -14.222222 203 210 216
10.202090 2.564460 -14.271777 203 210 216
10.666667 2.666667 -14.840580 203 210 216
10.422535 2.591549 -14.422535 203 210 216
10.442105 2.582456 -14.371930 203 210 216
10.498245 2.582456 -14.371930 203 210 216
10.554386 2.582456 -14.371930 203 210 216
10.610526 2.582456 -14.371930 203 210 216
10.780142 2.609929 -14.524822 202 209 215
11.445693 2.756554 -15.340824 202 209 215
12.000000 2.875000 -16.000000 203 209 215
12.062500 2.875000 -16.000000 204 209 215
12.125000 2.875000 -16.000000 203 208 214
12.187500 2.875000 -16.000000 203 208 214
12.250000 2.875000 -16.000000 203 208 214
12.312500 2.875000 -16.000000 202 207 213
12.375000 2.875000 -16.000000 202 207 213
12.437500 2.875000 -16.000000 202 207 213
12.500000 2.875000 -16.000000 202 207 213
12.562500 2.875000 -16.000000 202 207 213
12.625000 2.875000 -16.000000 202 207 213
12.687500 2.875000 -16.000000 202 207 213
12.750000 2.875000 -16.000000 202 207 213
12.812500 2.875000 -16.000000 201 206 212
12.875000 2.875000 -16.000000 201 206 212
13.125000 2.875000 -16.000000 200 205 211
13.187500 2.875000 -16.000000 200 205 211
13.250000 2.875000 -16.000000 200 205 211
13.312500 2.875000 -16.000000 199 204 210
13.134328 2.746269 -15.283582 197 202 206
12.765343 2.657040 -14.787004 197 202 206
11.761589 2.437086 -13.562914 196 201 205
11.255521 2.321767 -12.921136 196 201 205
11.270440 2.314466 -12.880503 196 201 205
11.356467 2.321767 -12.921136 196 201 205
14.125000 2.875000 -16.000000 195 200 204
14.187500 2.875000 -16.000000 195 200 204
14.250000 2.875000 -16.000000 195 200 204
14.312500 2.875000 -16.000000 194 199 203
14.375000 2.875000 -16.000000 194 199 203
14.437500 2.875000 -16.000000 193 198 202
14.500000 2.875000 -16.000000 193 198 202
14.562500 2.875000 -16.000000 193 198 202
14.625000 2.875000 -16.000000 192 197 201
14.687500 2.875000 -16.000000 192 197 201
14.750000 2.875000 -16.000000 192 197 201
14.812500 2.875000 -16.000000 191 196 200
14.875000 2.875000 -16.000000 191 196 200
14.937500 2.875000 -16.000000 190 195 199
15.000000 2.875000 -16.000000 190 195 199
15.062500 2.875000 -16.000000 190 195 199
15.125000 2.875000 -16.000000 189 194 198
15.187500 2.875000 -16.000000 189 194 198
15.250000 2.875000 -16.000000 188 193 197
15.312500 2.875000 -16.000000 188 193 197
15.375000 2.875000 -16.000000 187 192 196
15.437500 2.875000 -16.000000 187 192 196
15.500000 2.875000 -16.000000 187 192 196
15.562500 2.875000 -16.000000 186 191 195
15.625000 2.875000 -16.000000 186 191 195
15.687500 2.875000 -16.000000 185 190 194
15.750000 2.875000 -16.000000 185 190 194
15.812500 2.875000 -16.000000 185 190 194
15.875000 2.875000 -16.000000 184 189 193
15.937500 2.875000 -16.000000 184 189 193
-5.702971 1.782178 -10.138614 60 74 77
-5.663366 1.782178 -10.138614 58 72 75
-5.651742 1.791045 -10.189054 59 73 76
-5.640000 1.800000 -10.240000 59 72 76
-5.656566 1.818182 -10.343434 72 85 88
-5.731959 1.855670 -10.556701 84 96 100
-5.795276 1.889764 -10.750656 84 96 100
-5.768421 1.894737 -10.778948 83 94 98
-5.741425 1.899736 -10.807388 80 91 94
-5.714286 1.904762 -10.835979 82 92 95
-5.671957 1.904762 -10.835979 88 98 101
-5.720430 1.935484 -11.010753 96 107 109
-5.899441 2.011173 -11.441340 93 104 107
-5.774105 1.983471 -11.283747 92 102 105
-5.730028 1.983471 -11.283747 73 84 86
-5.685950 1.983471 -11.283747 65 76 79
-5.704735 2.005571 -11.409471 63 76 80
-5.675978 2.011173 -11.441340 62 76 81
-5.711048 2.039660 -11.603399 63 78 82
-5.681818 2.045455 -11.636364 64 80 83
-5.636364 2.045455 -11.636364 71 87 89
-5.590909 2.045455 -11.636364 82 98 99
-5.545455 2.045455 -11.636364 96 110 112
-5.500000 2.045455 -11.636364 95 108 110
-5.454545 2.045455 -11.636364 100 113 115
-5.424501 2.051282 -11.669516 106 120 122
-5.394286 2.057143 -11.702857 100 114 115
-5.348571 2.057143 -11.702857 91 105 107
-5.318051 2.063037 -11.736390 98 112 114
-5.302594 2.074928 -11.804034 100 114 115
-5.286956 2.086957 -11.872464 103 117 119
-5.255814 2.093023 -11.906977 100 114 115
-5.194203 2.086957 -11.872464 82 95 97
-5.162791 2.093023 -11.906977 72 84 87
-5.146199 2.105263 -11.976608 72 85 87
-5.144543 2.123894 -12.082596 71 85 87
-5.127596 2.136498 -12.154303 74 88 91
-5.095238 2.142857 -12.190476 76 90 93
-5.047619 2.142857 -12.190476 69 84 87
-5.000000 2.142857 -12.190476 64 78 81
-4.952381 2.142857 -12.190476 61 76 79
-4.919403 2.149254 -12.226866 65 79 82
-4.871642 2.149254 -12.226866 64 80 83
-4.852853 2.162162 -12.300301 62 79 82
-4.833837 2.175227 -12.374622 68 84 87
-5.462069 2.482759 -14.124138 92 107 111
-5.620072 2.580645 -14.681004 117 131 136
-5.623188 2.608696 -14.840580 145 159 164
-5.605839 2.627737 -14.948905 176 193 199
-5.588235 2.647059 -15.058824 183 202 209
-5.529412 2.647059 -15.058824 183 202 209
-5.531599 2.676580 -15.226766 182 201 208
-5.492537 2.686567 -15.283582 181 200 208
-5.453184 2.696629 -15.340824 181 199 208
-5.625000 2.812500 -16.000000 182 199 208
-5.562500 2.812500 -16.000000 182 199 208
